ply
format ascii 1.0
element vertex 1123
property float x
property float y
property float z
property uchar red
property uchar green
property uchar blue
property uchar alpha
end_header
-2.754494 1.492018 30.005386 206 206 206 0
-2.625632 1.484053 29.845210 206 206 206 0
-2.497937 1.476054 29.684337 206 206 206 0
-2.376021 1.470870 29.580096 207 207 207 0
-2.253992 1.465095 29.463954 206 206 206 0
-2.131910 1.458675 29.334845 206 206 206 0
-2.007876 1.450133 29.163053 206 206 206 0
-1.890373 1.445579 29.071475 207 207 207 0
-1.775945 1.442956 29.018717 206 206 206 0
-1.660408 1.439020 28.939575 206 206 206 0
-1.543904 1.433625 28.831069 206 206 206 0
-1.427039 1.427039 28.698620 206 206 206 0
-1.315145 1.424741 28.652403 206 206 206 0
-1.209274 1.429142 28.740906 206 206 206 0
-1.082054 1.406670 28.288998 206 206 206 0
-0.988990 1.428541 28.728826 205 205 205 0
-0.876161 1.423762 28.632711 206 206 206 0
-0.763909 1.418689 28.530694 206 206 206 0
-0.653273 1.415424 28.465037 206 206 206 0
-0.543872 1.414066 28.437737 206 206 206 0
-0.434221 1.411218 28.380458 205 205 205 0
-0.325031 1.408469 28.325173 206 206 206 0
-0.215935 1.403578 28.226815 205 205 205 0
-0.107596 1.398753 28.129768 205 205 205 0
0.000000 1.392907 28.012209 206 206 206 0
0.106836 1.388868 27.930972 205 205 205 0
0.212960 1.384238 27.837864 206 206 206 0
0.318105 1.378455 27.721571 205 205 205 0
0.422046 1.371650 27.584720 205 205 205 0
0.526378 1.368583 27.523031 205 205 205 0
0.630849 1.366839 27.487963 206 206 206 0
0.734652 1.364353 27.437969 205 205 205 0
0.837412 1.360794 27.366393 205 205 205 0
0.939536 1.357107 27.292249 205 205 205 0
1.045186 1.358742 27.325134 205 205 205 0
1.149518 1.358521 27.320678 204 204 204 0
1.263154 1.368417 27.519689 205 205 205 0
1.358856 1.358856 27.327421 204 204 204 0
1.456195 1.352181 27.193187 205 205 205 0
1.555391 1.348005 27.109203 206 206 206 0
1.655407 1.345018 27.049138 206 206 206 0
1.756822 1.343452 27.017642 208 208 208 0
1.854944 1.339682 26.941812 204 204 204 0
1.955467 1.337951 26.907009 209 209 209 0
2.054553 1.335459 26.856898 206 206 206 0
2.148954 1.330305 26.753245 181 181 181 0
2.245813 1.327071 26.688212 178 178 178 0
2.343164 1.324397 26.634425 204 204 204 0
2.436797 1.319932 26.544632 205 205 205 0
2.519848 1.310321 26.351354 204 204 204 0
2.591736 1.295868 26.060696 203 203 203 0
2.671875 1.286458 25.871461 204 204 204 0
2.780069 1.290746 25.957693 204 204 204 0
2.911961 1.305362 26.251622 203 203 203 0
2.956600 1.281193 25.765577 159 159 159 0
-4.603193 1.611118 30.086231 153 153 153 0
-4.391079 1.576285 29.435755 181 181 181 0
-4.084181 1.504698 28.098938 183 183 183 0
-4.941442 1.869735 34.915684 185 185 185 0
-3.703610 1.440293 26.896223 186 186 186 0
-3.517036 1.406815 26.271046 187 187 187 0
-3.354428 1.381235 25.793370 189 189 189 0
-3.469023 1.471707 27.482851 190 190 190 0
-3.679905 1.609959 30.064585 191 191 191 0
-3.542287 1.599743 29.873811 197 197 197 0
-3.476182 1.622218 30.293522 206 206 206 0
-3.352251 1.618328 30.220875 207 207 207 0
-3.220325 1.610163 30.068397 207 207 207 0
-3.096092 1.605381 29.979103 206 206 206 0
-2.981744 1.605554 29.982339 207 207 207 0
-2.859980 1.601589 29.908289 206 206 206 0
-2.739625 1.598114 29.843406 207 207 207 0
-2.613406 1.590769 29.706236 207 207 207 0
-2.489702 1.584356 29.586471 206 206 206 0
-2.365873 1.577249 29.453758 207 207 207 0
-2.246440 1.572508 29.365234 206 206 206 0
-2.123831 1.564928 29.223684 206 206 206 0
-2.001142 1.556444 29.065247 207 207 207 0
-1.881740 1.549668 28.938711 205 205 205 0
-1.768993 1.547869 28.905121 206 206 206 0
-1.654410 1.544116 28.835028 206 206 206 0
-1.538820 1.538820 28.736143 206 206 206 0
-1.422402 1.531817 28.605360 206 206 206 0
-1.310472 1.528884 28.550589 206 206 206 0
-1.204116 1.532512 28.618329 206 206 206 0
-1.096310 1.534834 28.661707 206 206 206 0
-0.986319 1.534273 28.651230 206 206 206 0
-0.874151 1.529764 28.567023 205 205 205 0
-0.762367 1.524733 28.473075 206 206 206 0
-0.651427 1.519996 28.384603 206 206 206 0
-0.542131 1.517968 28.346743 205 205 205 0
-0.433279 1.516476 28.318874 205 205 205 0
-0.324137 1.512638 28.247211 205 205 205 0
-0.215649 1.509541 28.189366 206 206 206 0
-0.107268 1.501745 28.043798 205 205 205 0
0.000000 1.495903 27.934691 205 205 205 0
0.106567 1.491943 27.860755 205 205 205 0
0.212403 1.486822 27.765113 205 205 205 0
0.317428 1.481331 27.662578 205 205 205 0
0.421310 1.474585 27.536595 205 205 205 0
0.525288 1.470806 27.466035 205 205 205 0
0.629383 1.468559 27.424076 205 205 205 0
0.732884 1.465769 27.371963 205 205 205 0
0.835598 1.462297 27.307134 205 205 205 0
0.937037 1.457614 27.219676 204 204 204 0
1.041475 1.458064 27.228094 204 204 204 0
1.145910 1.458431 27.234931 204 204 204 0
1.138482 1.328229 24.803536 205 205 205 0
1.354349 1.458530 27.236788 204 204 204 0
1.455506 1.455506 27.180315 205 205 205 0
1.553924 1.450329 27.083640 205 205 205 0
1.653882 1.447147 27.024215 206 206 206 0
1.754692 1.445040 26.984878 205 205 205 0
1.852121 1.440539 26.900814 204 204 204 0
1.951579 1.438005 26.853508 204 204 204 0
2.051453 1.436017 26.816382 202 202 202 0
2.146223 1.430815 26.719238 162 162 162 0
2.241736 1.426559 26.639761 184 184 184 0
2.337589 1.422881 26.571065 204 204 204 0
2.432118 1.418735 26.493656 204 204 204 0
2.514871 1.408328 26.299305 203 203 203 0
2.585380 1.392128 25.996783 203 203 203 0
2.664525 1.381606 25.800294 204 204 204 0
2.775617 1.387808 25.916121 203 203 203 0
2.905515 1.402663 26.193513 203 203 203 0
2.935246 1.369782 25.579487 155 155 155 0
-4.608509 1.728191 30.120972 145 145 145 0
-4.405121 1.694277 29.529888 182 182 182 0
-4.131156 1.630719 28.422124 184 184 184 0
-3.802911 1.541721 26.870952 184 184 184 0
-3.744960 1.560400 27.196516 186 186 186 0
-3.536042 1.515446 26.413009 187 187 187 0
-3.374862 1.488910 25.950495 188 188 188 0
-3.456702 1.571228 27.385240 189 189 189 0
-3.672432 1.721453 30.003531 190 190 190 0
-3.528754 1.707462 29.759681 195 195 195 0
-3.463136 1.731568 30.179837 205 205 205 0
-3.337039 1.726055 30.083741 207 207 207 0
-3.214390 1.721994 30.012975 206 206 206 0
-3.086324 1.714625 29.884525 207 207 207 0
-2.969982 1.713451 29.864072 206 206 206 0
-2.846700 1.708020 29.769412 206 206 206 0
-2.725682 1.703551 29.691521 206 206 206 0
-2.605140 1.699004 29.612278 206 206 206 0
-2.480288 1.691106 29.474608 206 206 206 0
-2.356357 1.683112 29.335285 207 207 207 0
-2.237692 1.678269 29.250873 206 206 206 0
-2.116976 1.671297 29.129351 206 206 206 0
-1.996055 1.663379 28.991359 206 206 206 0
-1.875939 1.655240 28.849502 206 206 206 0
-1.763048 1.652857 28.807969 206 206 206 0
-1.648100 1.648100 28.725059 206 206 206 0
-1.533528 1.643066 28.637312 206 206 206 0
-1.418538 1.636775 28.527670 205 205 205 0
-1.306109 1.632637 28.455544 206 206 206 0
-1.199304 1.635414 28.503951 206 206 206 0
-1.092125 1.638187 28.552286 205 205 205 0
-0.984168 1.640279 28.588746 205 205 205 0
-0.871879 1.634773 28.492779 206 206 206 0
-0.760454 1.629544 28.401633 205 205 205 0
-0.648972 1.622430 28.277642 205 205 205 0
-0.540467 1.621400 28.259694 205 205 205 0
-0.431668 1.618755 28.213597 205 205 205 0
-0.323104 1.615518 28.157174 206 206 206 0
-0.214958 1.612181 28.099022 206 206 206 0
-0.107086 1.606285 27.996258 205 205 205 0
0.000000 1.599012 27.869487 205 205 205 0
0.106245 1.593673 27.776437 205 205 205 0
0.211939 1.589542 27.704430 205 205 205 0
0.316694 1.583468 27.598565 205 205 205 0
0.420357 1.576338 27.474306 205 205 205 0
0.523510 1.570531 27.373096 205 205 205 0
0.627946 1.569864 27.361461 205 205 205 0
0.731177 1.566807 27.308183 205 205 205 0
0.834025 1.563796 27.255708 205 205 205 0
0.935195 1.558659 27.166171 205 205 205 0
1.037410 1.556115 27.121838 204 204 204 0
1.141618 1.556752 27.132939 205 205 205 0
1.244874 1.556093 27.121443 204 204 204 0
1.352582 1.560672 27.201254 204 204 204 0
1.452698 1.556462 27.127872 205 205 205 0
1.552003 1.552003 27.050155 205 205 205 0
1.651096 1.547903 26.978698 205 205 205 0
1.751207 1.545182 26.931282 205 205 205 0
1.850804 1.542337 26.881687 204 204 204 0
1.951467 1.540632 26.851970 204 204 204 0
2.048374 1.536281 26.776135 203 203 203 0
2.144346 1.531676 26.695872 200 200 200 0
2.238937 1.526548 26.606502 202 202 202 0
2.334570 1.522546 26.536746 204 204 204 0
2.428278 1.517674 26.451832 204 204 204 0
2.511152 1.506691 26.260412 204 204 204 0
2.581201 1.489155 25.954764 204 204 204 0
2.659961 1.477756 25.756098 203 203 203 0
2.770387 1.484136 25.867293 203 203 203 0
2.901334 1.500690 26.155817 202 202 202 0
2.919213 1.459607 25.439766 142 142 142 0
-4.575371 1.830148 29.904385 132 132 132 0
-4.404236 1.806866 29.523953 180 180 180 0
-4.134157 1.740698 28.442774 183 183 183 0
-3.841579 1.661223 27.144169 184 184 184 0
-4.805994 2.135997 34.901919 185 185 185 0
-3.541643 1.619037 26.454852 187 187 187 0
-3.375796 1.588610 25.957681 188 188 188 0
-3.480483 1.687507 27.573642 189 189 189 0
-3.669258 1.834629 29.977602 190 190 190 0
-3.521712 1.817658 29.700289 194 194 194 0
-3.463607 1.847257 30.183938 206 206 206 0
-3.322261 1.832971 29.950513 207 207 207 0
-3.201844 1.829625 29.895833 206 206 206 0
-3.075276 1.822386 29.777549 206 206 206 0
-2.960425 1.821800 29.767973 206 206 206 0
-2.836873 1.815599 29.666649 207 207 207 0
-2.717063 1.811375 29.597634 207 207 207 0
-2.593050 1.803861 29.474855 206 206 206 0
-2.468691 1.795412 29.336797 206 206 206 0
-2.345235 1.786845 29.196822 207 207 207 0
-2.229722 1.783778 29.146699 206 206 206 0
-2.108817 1.775846 29.017094 206 206 206 0
-1.989245 1.768217 28.892441 206 206 206 0
-1.869966 1.759968 28.757651 205 205 205 0
-1.753823 1.753823 28.657232 206 206 206 0
-1.641916 1.751377 28.617267 206 206 206 0
-1.528238 1.746558 28.538534 206 206 206 0
-1.413744 1.739993 28.431262 206 206 206 0
-1.301389 1.735185 28.352699 206 206 206 0
-1.196054 1.739716 28.426724 206 206 206 0
-1.090020 1.744031 28.497243 206 206 206 0
-0.982442 1.746564 28.538631 206 206 206 0
-0.870454 1.740907 28.446196 206 206 206 0
-0.759458 1.735903 28.364435 205 205 205 0
-0.646864 1.724971 28.185804 205 205 205 0
-0.539039 1.724924 28.185040 206 206 206 0
-0.430193 1.720771 28.117169 205 205 205 0
-0.322374 1.719327 28.093571 205 205 205 0
-0.214709 1.717669 28.066482 205 205 205 0
-0.106787 1.708585 27.918048 205 205 205 0
0.000000 1.702194 27.813635 205 205 205 0
0.106027 1.696438 27.719579 206 206 206 0
0.211339 1.690713 27.626037 205 205 205 0
0.315971 1.685178 27.535589 205 205 205 0
0.419435 1.677740 27.414055 205 205 205 0
0.522233 1.671146 27.306302 205 205 205 0
0.625820 1.668853 27.268835 205 205 205 0
0.729364 1.667118 27.240489 205 205 205 0
0.832129 1.664259 27.193769 205 205 205 0
0.932870 1.658436 27.098621 205 205 205 0
1.034494 1.655191 27.045599 204 204 204 0
1.138945 1.656647 27.069402 204 204 204 0
1.243963 1.658618 27.101600 205 205 205 0
1.351265 1.663096 27.174770 204 204 204 0
1.450949 1.658228 27.095228 204 204 204 0
1.549336 1.652625 27.003675 204 204 204 0
1.649591 1.649591 26.954101 204 204 204 0
1.749126 1.646236 26.899283 205 205 205 0
1.848854 1.643426 26.853359 204 204 204 0
1.949745 1.641890 26.828271 204 204 204 0
2.046652 1.637322 26.753625 204 204 204 0
2.140287 1.630695 26.645343 204 204 204 0
2.235003 1.625457 26.559747 204 204 204 0
2.330771 1.621406 26.493563 204 204 204 0
2.423281 1.615521 26.397396 203 203 203 0
2.504468 1.602860 26.190518 203 203 203 0
2.576378 1.585464 25.906268 203 203 203 0
2.658001 1.575112 25.737123 203 203 203 0
2.770784 1.583305 25.871003 203 203 203 0
2.896251 1.597932 26.109997 200 200 200 0
2.918493 1.556529 25.433486 133 133 133 0
-4.552911 1.934987 29.757589 106 106 106 0
-4.360446 1.900707 29.230406 173 173 173 0
-4.136360 1.850477 28.457926 183 183 183 0
-3.867227 1.776834 27.325396 184 184 184 0
-4.805471 2.269250 34.898118 185 185 185 0
-3.538413 1.718658 26.430721 187 187 187 0
-3.385216 1.692608 26.030111 188 188 188 0
-3.518028 1.812318 27.871091 188 188 188 0
-3.658744 1.943708 29.891697 189 189 189 0
-3.512932 1.926447 29.626246 193 193 193 0
-3.556272 2.015221 30.991481 205 205 205 0
-3.316344 1.944064 29.897177 207 207 207 0
-3.188149 1.935662 29.767967 206 206 206 0
-3.061729 1.927755 29.646374 206 206 206 0
-2.949192 1.928318 29.655027 206 206 206 0
-2.826304 1.921887 29.556124 206 206 206 0
-2.706494 1.917100 29.482503 206 206 206 0
-2.586637 1.911862 29.401952 207 207 207 0
-2.460025 1.900928 29.233806 206 206 206 0
-2.339228 1.893661 29.122044 207 207 207 0
-2.218867 1.886037 29.004794 207 207 207 0
-2.101431 1.880227 28.915455 206 206 206 0
-1.981951 1.871843 28.786512 206 206 206 0
-1.864553 1.864553 28.674404 206 206 206 0
-1.747875 1.857118 28.560054 206 206 206 0
-1.635657 1.853744 28.508181 206 206 206 0
-1.522944 1.849290 28.439670 205 205 205 0
-1.410100 1.843977 28.357977 206 206 206 0
-1.297387 1.837965 28.265520 206 206 206 0
-1.191162 1.840887 28.310449 205 205 205 0
-1.085099 1.844669 28.368605 206 206 206 0
-1.020801 1.928179 29.652884 205 205 205 0
-0.867064 1.842510 28.335410 205 205 205 0
-0.756067 1.836162 28.237784 205 205 205 0
-0.645572 1.829120 28.129492 205 205 205 0
-0.536826 1.825209 28.069346 205 205 205 0
-0.428908 1.822858 28.033192 205 205 205 0
-0.321431 1.821443 28.011420 206 206 206 0
-0.213993 1.818940 27.972930 205 205 205 0
-0.106512 1.810709 27.846353 205 205 205 0
0.000000 1.804221 27.746573 205 205 205 0
0.105754 1.797814 27.648041 205 205 205 0
0.210809 1.791879 27.556778 205 205 205 0
0.315464 1.787628 27.491388 205 205 205 0
0.418649 1.779258 27.362684 204 204 204 0
0.521080 1.771672 27.246018 205 205 205 0
0.624495 1.769402 27.211111 204 204 204 0
0.727582 1.766986 27.173947 204 204 204 0
0.830010 1.763772 27.124515 204 204 204 0
0.930331 1.757291 27.024853 204 204 204 0
1.032415 1.755105 26.991229 204 204 204 0
1.136287 1.756080 27.006226 205 205 205 0
1.241782 1.759192 27.054084 205 205 205 0
1.348084 1.762879 27.110789 204 204 204 0
1.447654 1.757866 27.033695 204 204 204 0
1.548305 1.754746 26.985715 205 205 205 0
1.645010 1.747823 26.879251 204 204 204 0
1.745609 1.745609 26.845195 204 204 204 0
1.846226 1.743658 26.815192 204 204 204 0
1.946233 1.741366 26.779948 204 204 204 0
2.042862 1.736432 26.704072 204 204 204 0
2.138769 1.731384 26.626438 203 203 203 0
2.231191 1.724102 26.514448 204 204 204 0
2.327566 1.720375 26.457125 204 204 204 0
2.421142 1.714976 26.374098 203 203 203 0
2.501347 1.700916 26.157872 203 203 203 0
2.574090 1.683059 25.883259 203 203 203 0
2.657357 1.673151 25.730887 203 203 203 0
2.766994 1.679961 25.835615 203 203 203 0
2.886910 1.692327 26.025784 198 198 198 0
2.909016 1.648442 25.350901 122 122 122 0
-4.357802 2.011293 29.212684 150 150 150 0
-4.144108 1.962999 28.511238 181 181 181 0
-3.751154 1.824886 26.505240 184 184 184 0
-4.808568 2.404284 34.920612 185 185 185 0
-3.549145 1.825275 26.510889 186 186 186 0
-3.405591 1.802960 26.186783 187 187 187 0
-3.502117 1.910245 27.745031 188 188 188 0
-3.656453 2.056755 29.872979 190 190 190 0
-3.500378 2.032478 29.520373 193 193 193 0
-2.597976 1.558785 22.640310 203 203 203 0
-3.301358 2.049119 29.762077 206 206 206 0
-3.174825 2.040959 29.643556 206 206 206 0
-3.053566 2.035711 29.567332 206 206 206 0
-2.937885 2.033920 29.541327 207 207 207 0
-2.815015 2.026811 29.438062 206 206 206 0
-2.694169 2.020627 29.348250 206 206 206 0
-2.577132 2.016886 29.293910 206 206 206 0
-2.452498 2.006589 29.144356 207 207 207 0
-2.330444 1.997523 29.012681 206 206 206 0
-2.210219 1.989197 28.891747 206 206 206 0
-2.093553 1.983366 28.807054 206 206 206 0
-1.975981 1.975981 28.699793 206 206 206 0
-1.857287 1.966540 28.562666 206 206 206 0
-1.741524 1.959214 28.456269 206 206 206 0
-1.629382 1.955259 28.398822 205 205 205 0
-1.517959 1.951662 28.346576 205 205 205 0
-1.404678 1.944939 28.248935 206 206 206 0
-1.292397 1.938595 28.156797 206 206 206 0
-1.184383 1.938081 28.149320 206 206 206 0
-1.080324 1.944584 28.243773 206 206 206 0
-0.968089 1.936178 28.121689 205 205 205 0
-0.866351 1.949290 28.312127 205 205 205 0
-0.754185 1.939333 28.167511 205 205 205 0
-0.644066 1.932199 28.063891 205 205 205 0
-0.535356 1.927281 27.992461 205 205 205 0
-0.427634 1.924354 27.949948 205 205 205 0
-0.320464 1.922785 27.927155 204 204 204 0
-0.213323 1.919908 27.885375 204 204 204 0
-0.106280 1.913035 27.785543 205 205 205 0
0.000000 1.905454 27.675438 205 205 205 0
0.105458 1.898244 27.570714 205 205 205 0
0.210374 1.893364 27.499836 204 204 204 0
0.314608 1.887647 27.416801 205 205 205 0
0.417937 1.880715 27.316120 205 205 205 0
0.520062 1.872222 27.192760 204 204 204 0
0.622361 1.867082 27.118115 204 204 204 0
0.725656 1.865972 27.101993 205 205 205 0
0.828111 1.863251 27.062464 205 205 205 0
0.928234 1.856469 26.963960 204 204 204 0
1.029474 1.853054 26.914365 204 204 204 0
1.134008 1.855650 26.952067 204 204 204 0
1.239050 1.858575 26.994554 205 205 205 0
1.344927 1.862207 27.047301 204 204 204 0
1.446323 1.859558 27.008836 204 204 204 0
1.545727 1.854872 26.940775 204 204 204 0
1.642547 1.847865 26.839002 204 204 204 0
1.741594 1.844040 26.783448 204 204 204 0
1.843265 1.843265 26.772186 204 204 204 0
1.942583 1.840342 26.729731 204 204 204 0
2.040792 1.836712 26.677014 204 204 204 0
2.136329 1.831139 26.596068 204 204 204 0
2.229369 1.824029 26.492799 204 204 204 0
2.323281 1.818220 26.408418 203 203 203 0
2.416783 1.812588 26.326616 204 204 204 0
2.497522 1.798216 26.117878 203 203 203 0
2.571882 1.780533 25.861053 203 203 203 0
2.657159 1.771439 25.728964 203 203 203 0
2.760783 1.774789 25.777616 203 203 203 0
2.868858 1.780670 25.863040 196 196 196 0
2.894433 1.736660 25.223821 106 106 106 0
-4.387499 2.137499 29.411756 108 108 108 0
-4.175270 2.087635 28.725628 177 177 177 0
-3.634974 1.866608 25.684326 183 183 183 0
-4.810363 2.538803 34.933648 185 185 185 0
-3.553415 1.928997 26.542781 186 186 186 0
-3.451336 1.928688 26.538528 188 188 188 0
-3.413495 1.965346 27.042942 188 188 188 0
-3.665485 2.176382 29.946776 189 189 189 0
-3.492327 2.140459 29.452475 191 191 191 0
-2.971521 1.881963 25.895607 204 204 204 0
-3.291086 2.156229 29.669470 207 207 207 0
-3.156106 2.141643 29.468774 206 206 206 0
-3.043402 2.141653 29.468913 206 206 206 0
-2.928084 2.139753 29.442771 206 206 206 0
-2.803576 2.130718 29.318443 206 206 206 0
-2.683550 2.124477 29.232576 206 206 206 0
-2.564626 2.118604 29.151764 206 206 206 0
-2.444291 2.110978 29.046830 206 206 206 0
-2.323769 2.102458 28.929587 206 206 206 0
-2.203236 2.093074 28.800474 206 206 206 0
-2.085725 2.085725 28.699344 206 206 206 0
-1.968525 2.077887 28.591496 205 205 205 0
-1.850641 2.068364 28.460456 206 206 206 0
-1.736555 2.062159 28.375078 205 205 205 0
-1.624287 2.057430 28.310008 206 206 206 0
-1.513689 2.054292 28.266837 206 206 206 0
-1.401060 2.047702 28.176159 205 205 205 0
-1.289161 2.041171 28.086290 206 206 206 0
-1.180448 2.038955 28.055802 205 205 205 0
-1.075610 2.043658 28.120512 205 205 205 0
-0.969264 2.046225 28.155826 204 204 204 0
-0.862071 2.047420 28.172269 205 205 205 0
-0.751754 2.040474 28.076696 205 205 205 0
-0.642538 2.034703 27.997290 205 205 205 0
-0.533722 2.028142 27.907012 205 205 205 0
-0.426845 2.027516 27.898393 205 205 205 0
-0.319428 2.023042 27.836842 205 205 205 0
-0.212445 2.018227 27.770586 205 205 205 0
-0.106024 2.014460 27.718745 205 205 205 0
0.000000 2.006543 27.609811 205 205 205 0
0.105192 1.998649 27.501192 205 205 205 0
0.209827 1.993354 27.428330 205 205 205 0
0.313814 1.987487 27.347599 204 204 204 0
0.417022 1.980856 27.256365 205 205 205 0
0.518868 1.971699 27.130367 204 204 204 0
0.621055 1.966674 27.061219 204 204 204 0
0.723860 1.964763 27.034929 204 204 204 0
0.826278 1.962411 27.002560 204 204 204 0
0.926463 1.955866 26.912496 204 204 204 0
1.027600 1.952440 26.865364 204 204 204 0
1.131711 1.954773 26.897458 204 204 204 0
1.236463 1.957733 26.938186 204 204 204 0
1.339312 1.957457 26.934388 204 204 204 0
1.442787 1.958068 26.942800 204 204 204 0
1.542693 1.954077 26.887888 203 203 203 0
1.638457 1.945668 26.772175 203 203 203 0
1.737297 1.941685 26.717365 204 204 204 0
1.839758 1.941967 26.721249 204 204 204 0
1.938542 1.938542 26.674124 204 204 204 0
2.035504 1.933729 26.607895 203 203 203 0
2.132287 1.929212 26.545745 204 204 204 0
2.227036 1.923349 26.465068 204 204 204 0
2.320555 1.916980 26.377433 203 203 203 0
2.411274 1.908925 26.266597 203 203 203 0
2.492881 1.894589 26.069340 203 203 203 0
2.568151 1.876726 25.823541 203 203 203 0
2.654190 1.867763 25.700218 203 203 203 0
2.752657 1.867874 25.701742 203 203 203 0
2.819257 1.847099 25.415884 195 195 195 0
2.880240 1.824152 25.100126 90 90 90 0
-4.258699 2.241420 29.299612 154 154 154 0
-3.617350 1.955325 25.559798 182 182 182 0
-4.812117 2.673398 34.946381 184 184 184 0
-4.675092 2.671481 34.921326 186 186 186 0
-3.523134 2.072432 27.090615 187 187 187 0
-3.369582 2.042171 26.695042 188 188 188 0
-3.641016 2.275635 29.746862 188 188 188 0
-3.487480 2.249987 29.411595 191 191 191 0
-3.148282 2.098855 27.436013 203 203 203 0
-3.277063 2.260044 29.543056 207 207 207 0
-3.140674 2.243339 29.324691 206 206 206 0
-3.032188 2.246065 29.360325 205 205 205 0
-2.913182 2.240909 29.292932 206 206 206 0
-2.795228 2.236183 29.231147 206 206 206 0
-2.672999 2.227499 29.117631 206 206 206 0
-2.554455 2.221265 29.036148 206 206 206 0
-2.435969 2.214518 28.947943 206 206 206 0
-2.315736 2.205463 28.829578 206 206 206 0
-2.195294 2.195294 28.696654 205 205 205 0
-2.078537 2.187933 28.600436 205 205 205 0
-1.962047 2.180053 28.497421 205 205 205 0
-1.846087 2.171867 28.390420 206 206 206 0
-1.730806 2.163508 28.281146 205 205 205 0
-1.617974 2.157299 28.199983 206 206 206 0
-1.508329 2.154755 28.166736 206 206 206 0
-1.396562 2.148557 28.085713 205 205 205 0
-1.285140 2.141901 27.998700 205 205 205 0
-1.175364 2.137026 27.934984 205 205 205 0
-1.070849 2.141697 27.996044 205 205 205 0
-0.964498 2.143328 28.017358 205 205 205 0
-0.859456 2.148641 28.086813 205 205 205 0
-0.749968 2.142765 28.009997 205 205 205 0
-0.641260 2.137533 27.941605 205 205 205 0
-0.532346 2.129384 27.835090 205 205 205 0
-0.425867 2.129334 27.834428 205 205 205 0
-0.318580 2.123869 27.762990 205 205 205 0
-0.212092 2.120924 27.724500 205 205 205 0
-0.105871 2.117426 27.678769 204 204 204 0
0.000000 2.106923 27.541475 204 204 204 0
0.104979 2.099570 27.445362 205 205 205 0
0.209327 2.093268 27.362981 205 205 205 0
0.313248 2.088322 27.298330 204 204 204 0
0.416215 2.081075 27.203599 204 204 204 0
0.517738 2.070954 27.071291 204 204 204 0
0.619868 2.066227 27.009498 204 204 204 0
0.722244 2.063555 26.974575 205 205 205 0
0.824402 2.061004 26.941234 204 204 204 0
0.924774 2.055053 26.863435 205 205 205 0
1.024914 2.049828 26.795135 204 204 204 0
1.126175 2.047591 26.765893 204 204 204 0
1.231530 2.052550 26.830718 204 204 204 0
1.313856 2.021316 26.422435 204 204 204 0
1.440231 2.057473 26.895073 204 204 204 0
1.540204 2.053605 26.844513 204 204 204 0
1.635411 2.044264 26.722407 204 204 204 0
1.734153 2.040180 26.669019 203 203 203 0
1.835092 2.038991 26.653478 204 204 204 0
1.935186 2.037038 26.627953 203 203 203 0
2.033052 2.033052 26.575844 203 203 203 0
2.129622 2.028211 26.512566 204 204 204 0
2.223161 2.021055 26.419026 203 203 203 0
2.315439 2.013425 26.319279 203 203 203 0
2.407060 2.005884 26.220701 203 203 203 0
2.487124 1.989699 26.009138 203 203 203 0
2.563298 1.971768 25.774742 203 203 203 0
2.652751 1.965000 25.686281 203 203 203 0
2.745602 1.961144 25.635869 203 203 203 0
2.794200 1.927034 25.189991 190 190 190 0
2.866276 1.910851 24.978440 93 93 93 0
-4.306100 2.379687 29.625729 113 113 113 0
-3.595951 2.040945 25.408591 178 178 178 0
-3.385335 1.974779 24.584855 184 184 184 0
-3.516118 2.109671 26.264189 185 185 185 0
-3.518686 2.173306 27.056411 187 187 187 0
-3.310168 2.106471 26.224345 188 188 188 0
-3.542621 2.324845 28.942983 189 189 189 0
-3.489978 2.364179 29.432665 191 191 191 0
-3.341188 2.338831 29.117105 202 202 202 0
-3.274310 2.371052 29.518232 206 206 206 0
-3.135962 2.351972 29.280695 206 206 206 0
-3.021733 2.350237 29.259095 206 206 206 0
-2.896672 2.339620 29.126918 205 205 205 0
-2.782189 2.337039 29.094789 207 207 207 0
-2.661790 2.329066 28.995535 206 206 206 0
-2.544477 2.323219 28.922733 206 206 206 0
-2.427792 2.317438 28.850769 206 206 206 0
-2.308615 2.308615 28.740932 205 205 205 0
-2.188852 2.298295 28.612448 206 206 206 0
-2.071864 2.289955 28.508625 205 205 205 0
-1.957321 2.283541 28.428774 205 205 205 0
-1.840604 2.273687 28.306095 206 206 206 0
-1.725463 2.264670 28.193832 206 206 206 0
-1.613043 2.258261 28.114045 205 205 205 0
-1.502223 2.253335 28.052718 205 205 205 0
-1.392797 2.249902 28.009987 205 205 205 0
-1.281558 2.242727 27.920657 205 205 205 0
-1.171993 2.237441 27.854847 205 205 205 0
-1.067363 2.241462 27.904917 205 205 205 0
-0.962984 2.246962 27.973389 205 205 205 0
-0.856623 2.248635 27.994215 205 205 205 0
-0.748305 2.244914 27.947883 205 205 205 0
-0.639117 2.236908 27.848220 205 205 205 0
-0.530482 2.228026 27.737637 205 205 205 0
-0.424454 2.228386 27.742124 205 205 205 0
-0.317778 2.224445 27.693064 204 204 204 0
-0.211714 2.222993 27.674981 204 204 204 0
-0.105649 2.218622 27.620563 205 205 205 0
0.000000 2.207875 27.486772 204 204 204 0
0.104758 2.199916 27.387683 204 204 204 0
0.208757 2.191947 27.288474 204 204 204 0
0.312492 2.187442 27.232394 204 204 204 0
0.415485 2.181298 27.155904 205 205 205 0
0.516685 2.170075 27.016188 204 204 204 0
0.618143 2.163499 26.934321 204 204 204 0
0.720416 2.161249 26.906309 204 204 204 0
0.822232 2.158358 26.870311 204 204 204 0
0.922911 2.153458 26.809317 204 204 204 0
1.021941 2.146076 26.717408 204 204 204 0
1.123464 2.144794 26.701453 204 204 204 0
1.226949 2.147160 26.730908 204 204 204 0
1.330935 2.149972 26.765916 204 204 204 0
1.436250 2.154375 26.820731 204 204 204 0
1.536545 2.151162 26.780732 204 204 204 0
1.632235 2.142308 26.670506 204 204 204 0
1.729090 2.135934 26.591152 204 204 204 0
1.832451 2.137860 26.615120 204 204 204 0
1.930300 2.133490 26.560716 203 203 203 0
2.029542 2.131019 26.529955 203 203 203 0
2.126208 2.126208 26.470064 203 203 203 0
2.220036 2.119125 26.381889 203 203 203 0
2.312507 2.111419 26.285957 203 203 203 0
2.401315 2.101151 26.158119 203 203 203 0
2.482109 2.084972 25.956700 203 203 203 0
2.559971 2.067669 25.741292 203 203 203 0
2.653432 2.063780 25.692875 203 203 203 0
2.743691 2.057768 25.618026 202 202 202 0
2.791873 2.021701 25.169015 187 187 187 0
2.855664 1.998965 24.885961 82 82 82 0
-3.728581 2.216994 26.345740 158 158 158 0
-3.396507 2.075643 24.665994 183 183 183 0
-3.349176 2.105196 25.017189 185 185 185 0
-3.466710 2.243165 26.656750 186 186 186 0
-3.321684 2.214456 26.315581 187 187 187 0
-3.437441 2.363241 28.083671 189 189 189 0
-3.472950 2.464675 29.289061 190 190 190 0
-3.338657 2.448348 29.095046 200 200 200 0
-3.271720 2.481995 29.494887 206 206 206 0
-3.136920 2.464723 29.289633 206 206 206 0
-3.014642 2.456375 29.190432 206 206 206 0
-2.885061 2.441206 29.010169 206 206 206 0
-2.766125 2.434190 28.926799 206 206 206 0
-2.651092 2.430168 28.879002 205 205 205 0
-2.534483 2.424288 28.809123 206 206 206 0
-2.421402 2.421402 28.774831 205 205 205 0
-2.300774 2.410334 28.643309 205 205 205 0
-2.181140 2.399254 28.511635 205 205 205 0
-2.064566 2.390550 28.408205 205 205 205 0
-1.949716 2.382986 28.318311 205 205 205 0
-1.835794 2.375734 28.232129 205 205 205 0
-1.719339 2.364091 28.093771 205 205 205 0
-1.606335 2.355958 27.997122 205 205 205 0
-1.497507 2.353225 27.964651 205 205 205 0
-1.387677 2.348376 27.907026 205 205 205 0
-1.277585 2.342239 27.834096 205 205 205 0
-1.168148 2.336296 27.763470 205 205 205 0
-1.063733 2.340214 27.810024 205 205 205 0
-0.958441 2.342856 27.841432 205 205 205 0
-0.952769 2.620115 31.136245 204 204 204 0
-0.745275 2.342292 27.834721 205 205 205 0
-0.637770 2.338492 27.789563 204 204 204 0
-0.529379 2.329269 27.679962 205 205 205 0
-0.422987 2.326428 27.646203 204 204 204 0
-0.316851 2.323573 27.612278 205 205 205 0
-0.210960 2.320565 27.576532 204 204 204 0
-0.105312 2.316853 27.532423 204 204 204 0
0.000000 2.305996 27.403399 204 204 204 0
0.104535 2.299778 27.329510 204 204 204 0
0.208264 2.290901 27.224011 204 204 204 0
0.311577 2.284899 27.152696 204 204 204 0
0.414461 2.279537 27.088972 204 204 204 0
0.515805 2.269543 26.970205 204 204 204 0
0.616951 2.262155 26.882414 205 205 205 0
0.718489 2.258107 26.834307 204 204 204 0
0.820565 2.256554 26.815849 204 204 204 0
0.920810 2.250869 26.748292 204 204 204 0
1.019552 2.243015 26.654966 203 203 203 0
1.120203 2.240406 26.623958 203 203 203 0
1.224101 2.244185 26.668865 204 204 204 0
1.327308 2.246214 26.692981 203 203 203 0
1.434344 2.253969 26.785128 203 203 203 0
1.533441 2.249047 26.726641 204 204 204 0
1.629856 2.241052 26.631631 203 203 203 0
1.725714 2.233277 26.539243 203 203 203 0
1.827095 2.233116 26.537330 203 203 203 0
1.926060 2.230174 26.502368 203 203 203 0
2.025690 2.228259 26.479605 203 203 203 0
2.122803 2.223889 26.427679 204 204 204 0
2.215687 2.215687 26.330211 203 203 203 0
2.309829 2.209402 26.255514 203 203 203 0
2.395561 2.195931 26.095438 203 203 203 0
2.477933 2.180581 25.913020 203 203 203 0
2.557537 2.164070 25.716811 203 203 203 0
2.649652 2.158976 25.656280 203 203 203 0
2.741752 2.154233 25.599921 202 202 202 0
2.801700 2.125427 25.257605 182 182 182 0
-3.955984 2.459125 27.952547 116 116 116 0
-3.574890 2.283957 25.961437 179 179 179 0
-4.682242 3.076902 34.974733 185 185 185 0
-3.251214 2.199350 24.999721 186 186 186 0
-3.323101 2.316101 26.326807 187 187 187 0
-4.274477 3.072281 34.922200 189 189 189 0
-3.466442 2.571877 29.234176 190 190 190 0
-3.305150 2.533948 28.803049 199 199 199 0
-2.414244 1.914745 21.764651 206 206 206 0
-3.117245 2.560595 29.105934 205 205 205 0
-2.988814 2.546026 28.940341 206 206 206 0
-2.870602 2.539379 28.864777 206 206 206 0
-2.752284 2.532102 28.782060 206 206 206 0
-2.638593 2.528651 28.742839 206 206 206 0
-2.522833 2.522833 28.676706 205 205 205 0
-2.409167 2.518674 28.629431 205 205 205 0
-2.291282 2.509500 28.525146 205 205 205 0
-2.173273 2.499264 28.408800 205 205 205 0
-2.056492 2.489437 28.297097 205 205 205 0
-1.943859 2.483820 28.233244 205 205 205 0
-1.829303 2.474939 28.132303 206 206 206 0
-1.714522 2.464625 28.015059 205 205 205 0
-1.600490 2.454085 27.895249 205 205 205 0
-1.492218 2.451500 27.865875 205 205 205 0
-1.383713 2.448108 27.827320 205 205 205 0
-1.273995 2.441824 27.755889 205 205 205 0
-1.164200 2.434237 27.669641 205 205 205 0
-1.058649 2.434892 27.677092 204 204 204 0
-0.953022 2.435500 27.683999 205 205 205 0
-0.849018 2.440926 27.745675 205 205 205 0
-0.743335 2.442388 27.762295 204 204 204 0
-0.635500 2.436083 27.690634 205 205 205 0
-0.528272 2.430053 27.622090 205 205 205 0
-0.421618 2.424306 27.556755 204 204 204 0
-0.315959 2.422354 27.534570 204 204 204 0
-0.210319 2.418669 27.492688 205 205 205 0
-0.105027 2.415621 27.458041 204 204 204 0
0.000000 2.407244 27.362822 204 204 204 0
0.104268 2.398173 27.259708 204 204 204 0
0.207693 2.388467 27.149379 204 204 204 0
0.310910 2.383643 27.094552 204 204 204 0
0.413255 2.376217 27.010139 205 205 205 0
0.514755 2.367873 26.915290 204 204 204 0
0.615140 2.358038 26.803496 204 204 204 0
0.716445 2.354033 26.757980 204 204 204 0
0.818353 2.352766 26.743577 204 204 204 0
0.918614 2.347570 26.684515 203 203 203 0
1.017499 2.340248 26.601288 203 203 203 0
1.117633 2.336869 26.562875 204 204 204 0
1.221927 2.342026 26.621500 204 204 204 0
1.325773 2.345598 26.662096 203 203 203 0
1.431049 2.351010 26.723612 203 203 203 0
1.529121 2.344652 26.651342 203 203 203 0
1.625941 2.337290 26.567662 203 203 203 0
1.722506 2.330449 26.489901 203 203 203 0
1.822703 2.329010 26.473542 203 203 203 0
1.922676 2.327450 26.455808 204 204 204 0
2.022903 2.326339 26.443179 203 203 203 0
2.120566 2.322525 26.399827 203 203 203 0
2.211527 2.312051 26.280771 203 203 203 0
2.305871 2.305871 26.210526 203 203 203 0
2.392534 2.292845 26.062457 203 203 203 0
2.474430 2.276476 25.876395 202 202 202 0
2.554736 2.259959 25.688647 202 202 202 0
2.644170 2.252441 25.603193 202 202 202 0
2.736254 2.247637 25.548591 202 202 202 0
2.798386 2.219410 25.227731 175 175 175 0
-3.768226 2.512151 27.365475 160 160 160 0
-3.226057 2.212153 24.097530 184 184 184 0
-4.548094 3.210419 34.971887 186 186 186 0
-3.313576 2.409873 26.251345 186 186 186 0
-4.276224 3.207168 34.936471 188 188 188 0
-3.392505 2.626456 28.610628 189 189 189 0
-3.280775 2.624620 28.590629 198 198 198 0
-2.936876 2.430518 26.476230 205 205 205 0
-3.086180 2.645297 28.815876 205 205 205 0
-2.975505 2.644893 28.811474 205 205 205 0
-2.857663 2.637843 28.734671 205 205 205 0
-2.739026 2.629465 28.643413 206 206 206 0
-2.629084 2.629084 28.639261 206 206 206 0
-2.513843 2.623141 28.574518 205 205 205 0
-2.399022 2.617115 28.508874 205 205 205 0
-2.285389 2.611873 28.451771 205 205 205 0
-2.166185 2.599422 28.316148 205 205 205 0
-2.049356 2.588660 28.198907 205 205 205 0
-1.935992 2.581322 28.118980 205 205 205 0
-1.823557 2.574433 28.043938 204 204 204 0
-1.709254 2.563881 27.928991 205 205 205 0
-1.595413 2.552661 27.806762 205 205 205 0
-1.487138 2.549380 27.771022 205 205 205 0
-1.379081 2.545996 27.734164 204 204 204 0
-1.269871 2.539741 27.666027 205 205 205 0
-1.160639 2.532302 27.584993 205 205 205 0
-1.053075 2.527381 27.531382 204 204 204 0
-0.948787 2.530099 27.560987 205 205 205 0
-0.845784 2.537351 27.639988 205 205 205 0
-0.742148 2.544509 27.717961 204 204 204 0
-0.634344 2.537376 27.640258 204 204 204 0
-0.527184 2.530482 27.565161 204 204 204 0
-0.420331 2.521988 27.472634 205 205 205 0
-0.315110 2.520879 27.460555 204 204 204 0
-0.209600 2.515205 27.398745 204 204 204 0
-0.104706 2.512940 27.374072 204 204 204 0
0.000000 2.506305 27.301792 204 204 204 0
0.104027 2.496644 27.196556 204 204 204 0
0.207275 2.487297 27.094737 203 203 203 0
0.310331 2.482646 27.044074 204 204 204 0
0.412350 2.474097 26.950950 204 204 204 0
0.513583 2.465200 26.854033 204 204 204 0
0.614347 2.457387 26.768919 204 204 204 0
0.714751 2.450575 26.694718 204 204 204 0
0.816600 2.449801 26.686288 203 203 203 0
0.916777 2.444737 26.631126 204 204 204 0
1.016407 2.439378 26.572743 203 203 203 0
1.115093 2.432930 26.502504 203 203 203 0
1.219571 2.439142 26.570178 204 204 204 0
1.322847 2.442180 26.603264 203 203 203 0
1.427680 2.447452 26.660698 204 204 204 0
1.524654 2.439447 26.573494 202 202 202 0
1.624743 2.437114 26.548087 203 203 203 0
1.719484 2.427506 26.443426 203 203 203 0
1.818837 2.425116 26.417389 203 203 203 0
1.919485 2.424613 26.411906 203 203 203 0
2.019121 2.422945 26.393740 203 203 203 0
2.117815 2.420360 26.365582 203 203 203 0
2.208895 2.409704 26.249494 203 203 203 0
2.302039 2.402128 26.166967 203 203 203 0
2.389184 2.389184 26.025965 202 202 202 0
2.470214 2.371406 25.832307 203 203 203 0
2.550707 2.354499 25.648134 203 203 203 0
2.639577 2.346290 25.558719 203 203 203 0
2.728306 2.338548 25.474382 202 202 202 0
2.796729 2.314535 25.212796 169 169 169 0
-4.062493 2.821176 29.502493 115 115 115 0
-3.369864 2.407045 25.171717 179 179 179 0
-4.493674 3.304172 34.553435 185 185 185 0
-3.326427 2.520020 26.353155 187 187 187 0
-3.206453 2.505041 26.196509 188 188 188 0
-3.301391 2.662412 27.842221 189 189 189 0
-3.256500 2.713750 28.379086 197 197 197 0
-3.143317 2.709756 28.337318 205 205 205 0
-3.083498 2.753123 28.790831 205 205 205 0
-2.960105 2.740838 28.662355 205 205 205 0
-2.847113 2.737608 28.628582 206 206 206 0
-2.727045 2.727045 28.518116 206 206 206 0
-2.618324 2.727421 28.522051 205 205 205 0
-2.501681 2.719218 28.436270 205 205 205 0
-2.390356 2.716314 28.405893 206 206 206 0
-2.276223 2.709789 28.337664 205 205 205 0
-2.158002 2.697503 28.209182 205 205 205 0
-2.042988 2.688142 28.111289 206 206 206 0
-1.929673 2.680101 28.027197 205 205 205 0
-1.817355 2.672581 27.948556 205 205 205 0
-1.703835 2.662243 27.840446 204 204 204 0
-1.589592 2.649319 27.705300 205 205 205 0
-1.480361 2.643501 27.644458 205 205 205 0
-1.373454 2.641258 27.621004 204 204 204 0
-1.265654 2.636779 27.574160 205 205 205 0
-1.156658 2.628768 27.490384 205 205 205 0
-1.049603 2.624007 27.440599 205 205 205 0
-0.946440 2.628999 27.492803 205 205 205 0
-0.843399 2.635623 27.562072 204 204 204 0
-0.739728 2.641885 27.627554 204 204 204 0
-0.633263 2.638596 27.593161 204 204 204 0
-0.525815 2.629074 27.493581 204 204 204 0
-0.418686 2.616790 27.365120 204 204 204 0
-0.314091 2.617428 27.371799 204 204 204 0
-0.209046 2.613070 27.326222 204 204 204 0
-0.104455 2.611363 27.308374 204 204 204 0
0.000000 2.604842 27.240173 204 204 204 0
0.103772 2.594289 27.129824 204 204 204 0
0.206871 2.585892 27.042010 204 204 204 0
0.309580 2.579834 26.978660 204 204 204 0
0.411608 2.572550 26.902488 204 204 204 0
0.513001 2.565005 26.823584 204 204 204 0
0.613013 2.554221 26.710807 204 204 204 0
0.713380 2.547786 26.643512 203 203 203 0
0.815128 2.547275 26.638174 204 204 204 0
0.914832 2.541199 26.574634 203 203 203 0
1.014494 2.536236 26.522728 204 204 204 0
1.112747 2.528970 26.446749 203 203 203 0
1.216255 2.533865 26.497932 203 203 203 0
1.319312 2.537138 26.532161 203 203 203 0
1.427164 2.548507 26.651056 203 203 203 0
1.522864 2.538107 26.542300 203 203 203 0
1.619662 2.530721 26.465058 203 203 203 0
1.715672 2.523046 26.384799 203 203 203 0
1.814695 2.520409 26.357219 203 203 203 0
1.915295 2.520125 26.354245 202 202 202 0
2.014462 2.518077 26.332835 203 203 203 0
2.112043 2.514337 26.293721 202 202 202 0
2.205963 2.506776 26.214648 203 203 203 0
2.298907 2.498811 26.131362 202 202 202 0
2.387834 2.487328 26.011269 203 203 203 0
2.467813 2.467813 25.807192 202 202 202 0
2.548568 2.450546 25.626625 202 202 202 0
2.635224 2.440022 25.516572 203 203 203 0
2.725638 2.433605 25.449465 201 201 201 0
2.793171 2.407906 25.180719 159 159 159 0
-3.752440 2.787527 28.029429 161 161 161 0
-4.492427 3.435386 34.543847 185 185 185 0
-4.409932 3.474492 34.937072 187 187 187 0
-4.276119 3.474347 34.935614 188 188 188 0
-4.140447 3.472633 34.918377 190 190 190 0
-3.253579 2.819769 28.353631 195 195 195 0
-3.148730 2.822999 28.386115 205 205 205 0
-3.173978 2.947265 29.635649 205 205 205 0
-2.963756 2.853987 28.697710 206 206 206 0
-2.833109 2.833109 28.487770 205 205 205 0
-2.716550 2.825212 28.408363 205 205 205 0
-2.609655 2.827126 28.427612 204 204 204 0
-2.493335 2.818553 28.341408 205 205 205 0
-2.381188 2.814131 28.296948 205 205 205 0
-2.269454 2.809801 28.253401 205 205 205 0
-2.151186 2.796542 28.120082 205 205 205 0
-2.035069 2.784832 28.002331 205 205 205 0
-1.921636 2.775697 27.910476 205 205 205 0
-1.810816 2.769483 27.847994 205 205 205 0
-1.697773 2.758881 27.741384 204 204 204 0
-1.584698 2.746811 27.620017 204 204 204 0
-1.476567 2.742196 27.573614 204 204 204 0
-1.368352 2.736705 27.518398 205 205 205 0
-1.261501 2.733253 27.483690 205 205 205 0
-1.153453 2.726345 27.414225 204 204 204 0
-1.045851 2.719213 27.342509 204 204 204 0
-0.942608 2.723089 27.381488 205 205 205 0
-0.840685 2.732225 27.473351 204 204 204 0
-0.733692 2.725143 27.402144 204 204 204 0
-0.630873 2.733782 27.489010 203 203 203 0
-0.524622 2.728034 27.431211 204 204 204 0
-0.417607 2.714444 27.294559 204 204 204 0
-0.313039 2.713008 27.280125 204 204 204 0
-0.208404 2.709251 27.242346 204 204 204 0
-0.104164 2.708265 27.232429 204 204 204 0
0.000000 2.704679 27.196374 204 204 204 0
0.103472 2.690274 27.051528 204 204 204 0
0.206339 2.682411 26.972454 204 204 204 0
0.308816 2.676404 26.912061 204 204 204 0
0.411014 2.671589 26.863638 203 203 203 0
0.512105 2.662946 26.776728 203 203 203 0
0.611453 2.649629 26.642826 203 203 203 0
0.712002 2.644580 26.592058 203 203 203 0
0.812562 2.640826 26.554310 204 204 204 0
0.913197 2.638124 26.527143 203 203 203 0
1.012322 2.632037 26.465932 204 204 204 0
1.110352 2.624468 26.389825 203 203 203 0
1.212942 2.628040 26.425744 204 204 204 0
1.314786 2.629571 26.441140 204 204 204 0
1.404114 2.607640 26.220611 204 204 204 0
1.518763 2.632523 26.470821 203 203 203 0
1.618718 2.630416 26.449636 203 203 203 0
1.712324 2.618848 26.333316 202 202 202 0
1.810154 2.614666 26.291267 203 203 203 0
1.910917 2.614939 26.294010 203 203 203 0
2.010452 2.613587 26.280414 203 203 203 0
2.107869 2.609743 26.241761 203 203 203 0
2.203679 2.604348 26.187509 202 202 202 0
2.295282 2.594667 26.090164 202 202 202 0
2.384187 2.582869 25.971532 202 202 202 0
2.466910 2.565586 25.797750 202 202 202 0
2.548090 2.548090 25.621815 202 202 202 0
2.635370 2.537763 25.517981 202 202 202 0
2.720946 2.526593 25.405662 202 202 202 0
2.785108 2.496994 25.108032 147 147 147 0
-3.746493 2.890152 27.985010 126 126 126 0
-4.490279 3.565810 34.527326 182 182 182 0
-4.409515 3.607785 34.933773 186 186 186 0
-3.260616 2.751145 26.639023 188 188 188 0
-4.141804 3.607378 34.929829 189 189 189 0
-3.252578 2.927320 28.344906 193 193 193 0
-3.149051 2.931875 28.389008 204 204 204 0
-3.453665 3.330320 32.247105 205 205 205 0
-2.947513 2.947513 28.540431 205 205 205 0
-2.816177 2.924492 28.317521 205 205 205 0
-2.705634 2.922085 28.294216 205 205 205 0
-2.599827 2.924805 28.320551 205 205 205 0
-2.483501 2.915415 28.229626 205 205 205 0
-2.372991 2.912307 28.199531 204 204 204 0
-2.259296 2.904810 28.126940 205 205 205 0
-2.142363 2.892190 28.004747 205 205 205 0
-2.029815 2.884474 27.930034 204 204 204 0
-1.915832 2.873748 27.826170 205 205 205 0
-1.803499 2.864381 27.735471 204 204 204 0
-1.693062 2.857043 27.664420 205 205 205 0
-1.580713 2.845283 27.550549 204 204 204 0
-1.469974 2.834951 27.450504 204 204 204 0
-1.364631 2.834233 27.443550 205 205 205 0
-1.256643 2.827448 27.377853 204 204 204 0
-1.148634 2.819375 27.299689 205 205 205 0
-1.042925 2.815897 27.266011 204 204 204 0
-0.938783 2.816350 27.270399 204 204 204 0
-0.836304 2.822524 27.330181 205 205 205 0
-0.677495 2.613195 25.303267 204 204 204 0
-0.628690 2.829105 27.393896 205 205 205 0
-0.522950 2.823931 27.343801 204 204 204 0
-0.416694 2.812683 27.234891 204 204 204 0
-0.311696 2.805263 27.163037 204 204 204 0
-0.207758 2.804735 27.157923 204 204 204 0
-0.103790 2.802337 27.134710 204 204 204 0
0.000000 2.797808 27.090852 204 204 204 0
0.103375 2.791112 27.026017 204 204 204 0
0.205963 2.780494 26.923206 203 203 203 0
0.307982 2.771842 26.839425 203 203 203 0
0.410087 2.768089 26.803089 203 203 203 0
0.511092 2.759898 26.723779 203 203 203 0
0.610312 2.746403 26.593109 203 203 203 0
0.710107 2.738986 26.521288 203 203 203 0
0.810585 2.735725 26.489709 203 203 203 0
0.911033 2.733100 26.464298 204 204 204 0
1.010331 2.727895 26.413891 204 204 204 0
1.107443 2.718269 26.320688 203 203 203 0
1.209735 2.721903 26.355875 203 203 203 0
1.310266 2.721322 26.350251 203 203 203 0
1.414016 2.727031 26.405530 203 203 203 0
1.516516 2.729730 26.431659 203 203 203 0
1.616862 2.728455 26.419317 203 203 203 0
1.710849 2.717232 26.310642 203 203 203 0
1.807759 2.711638 26.256481 202 202 202 0
1.907444 2.710578 26.246215 203 203 203 0
2.005420 2.707316 26.214635 202 202 202 0
2.103779 2.704859 26.190842 203 203 203 0
2.199265 2.699098 26.135059 203 203 203 0
2.292270 2.690926 26.055925 202 202 202 0
2.379893 2.677379 25.924758 202 202 202 0
2.463509 2.660590 25.762189 202 202 202 0
2.545900 2.643820 25.599803 202 202 202 0
2.633207 2.633207 25.497040 202 202 202 0
2.716498 2.619480 25.364129 200 200 200 0
2.776263 2.584797 25.028289 138 138 138 0
-4.206630 3.464284 32.346252 165 165 165 0
-4.409087 3.741044 34.930382 186 186 186 0
-3.265401 2.857226 26.678111 187 187 187 0
-3.115366 2.813879 26.273379 189 189 189 0
-3.248071 3.031533 28.305629 193 193 193 0
-3.153856 3.045103 28.432331 203 203 203 0
-3.747529 3.747529 34.990938 205 205 205 0
-2.930446 3.038981 28.375175 205 205 205 0
-2.799391 3.014729 28.148731 205 205 205 0
-2.698136 3.021912 28.215798 205 205 205 0
-2.586409 3.017477 28.174386 205 205 205 0
-2.475010 3.013056 28.133110 205 205 205 0
-2.361447 3.005479 28.062358 205 205 205 0
-2.248887 2.998516 27.997350 206 206 206 0
-2.135409 2.989572 27.913842 204 204 204 0
-2.022397 2.980374 27.827955 205 205 205 0
-1.906476 2.965630 27.690286 204 204 204 0
-1.796677 2.959232 27.630552 204 204 204 0
-1.686601 2.951553 27.558848 204 204 204 0
-1.575110 2.940206 27.452899 204 204 204 0
-1.464742 2.929484 27.352795 204 204 204 0
-1.357913 2.924737 27.308464 204 204 204 0
-1.252805 2.923211 27.294222 205 205 205 0
-1.145455 2.915703 27.224117 204 204 204 0
-1.038277 2.907175 27.144495 204 204 204 0
-0.935392 2.910109 27.171889 204 204 204 0
-0.832434 2.913520 27.203734 204 204 204 0
-0.730558 2.922232 27.285080 204 204 204 0
-0.627274 2.927277 27.332181 204 204 204 0
-0.521398 2.919829 27.262646 204 204 204 0
-0.415629 2.909403 27.165292 204 204 204 0
-0.310717 2.900022 27.077707 203 203 203 0
-0.207175 2.900447 27.081673 204 204 204 0
-0.103386 2.894800 27.028941 204 204 204 0
0.000000 2.890717 26.990826 203 203 203 0
0.103072 2.886005 26.946828 203 203 203 0
0.205443 2.876199 26.855270 203 203 203 0
0.307296 2.868092 26.779575 203 203 203 0
0.409147 2.864027 26.741611 203 203 203 0
0.509903 2.855455 26.661576 204 204 204 0
0.609539 2.844513 26.559416 204 204 204 0
0.709214 2.836858 26.487935 203 203 203 0
0.808415 2.829454 26.418801 203 203 203 0
0.908822 2.827447 26.400064 203 203 203 0
1.007882 2.822070 26.349859 203 203 203 0
1.105946 2.815136 26.285119 203 203 203 0
1.205956 2.813897 26.273552 203 203 203 0
1.306354 2.813684 26.271564 203 203 203 0
1.410018 2.820035 26.330864 202 202 202 0
1.513735 2.825638 26.383173 203 203 203 0
1.613211 2.823119 26.359653 203 203 203 0
1.708803 2.814499 26.279169 202 202 202 0
1.803640 2.805662 26.196659 203 203 203 0
1.903620 2.805335 26.193604 203 203 203 0
2.001348 2.801888 26.161417 202 202 202 0
2.101977 2.802635 26.168398 202 202 202 0
2.196113 2.795053 26.097605 202 202 202 0
2.286944 2.784105 25.995381 202 202 202 0
2.378192 2.774557 25.906230 202 202 202 0
2.459263 2.754375 25.717787 202 202 202 0
2.544438 2.740164 25.585102 202 202 202 0
2.629495 2.726883 25.461096 202 202 202 0
2.708203 2.708203 25.286679 198 198 198 0
2.767068 2.671651 24.945391 132 132 132 0
-3.372455 2.876506 25.931990 128 128 128 0
-3.309282 2.908157 26.217330 182 182 182 0
-3.235248 2.931943 26.431763 186 186 186 0
-3.055576 2.858443 25.769146 188 188 188 0
-3.228118 3.120514 28.131748 192 192 192 0
-3.141021 3.141021 28.316624 203 203 203 0
-2.789517 2.889143 26.045915 205 205 205 0
-2.920405 3.136731 28.277946 205 205 205 0
-2.790038 3.111966 28.054684 205 205 205 0
-2.697062 3.128592 28.204574 205 205 205 0
-2.575727 3.112337 28.058027 204 204 204 0
-2.464198 3.107033 28.010213 204 204 204 0
-2.351845 3.100159 27.948245 205 205 205 0
-2.240282 3.093723 27.890223 205 205 205 0
-2.126671 3.083672 27.799615 205 205 205 0
-2.014624 3.074953 27.721006 205 205 205 0
-1.900878 3.062525 27.608973 205 205 205 0
-1.791580 3.056225 27.552171 205 205 205 0
-1.681204 3.047183 27.470661 205 205 205 0
-1.569999 3.035332 27.363822 204 204 204 0
-1.460675 3.025683 27.276837 205 205 205 0
-1.353850 3.020126 27.226739 204 204 204 0
-1.248455 3.017101 27.199464 204 204 204 0
-1.142133 3.011079 27.145180 204 204 204 0
-1.035785 3.003776 27.079342 204 204 204 0
-0.931062 3.000089 27.046100 204 204 204 0
-0.829291 3.006179 27.101008 204 204 204 0
-0.728097 3.016403 27.193176 203 203 203 0
-0.625717 3.024299 27.264359 204 204 204 0
-0.519567 3.013487 27.166886 204 204 204 0
-0.414473 3.004931 27.089753 204 204 204 0
-0.309851 2.995227 27.002274 203 203 203 0
-0.206588 2.995526 27.004966 204 204 204 0
-0.103105 2.990031 26.955431 203 203 203 0
0.000000 2.987013 26.928220 204 204 204 0
0.102775 2.980473 26.869261 204 204 204 0
0.204910 2.971197 26.785643 203 203 203 0
0.306568 2.963492 26.716181 203 203 203 0
0.407933 2.957516 26.662299 203 203 203 0
0.509012 2.952271 26.615019 203 203 203 0
0.608806 2.942560 26.527477 204 204 204 0
0.707710 2.931940 26.431734 203 203 203 0
0.807046 2.925543 26.374061 203 203 203 0
0.907217 2.923255 26.353441 203 203 203 0
1.006142 2.917812 26.304364 202 202 202 0
1.103410 2.908991 26.224841 203 203 203 0
